-1118.21 6916.34 -4293.65
-1813.98 6629.15 -926.965
1718.96 -2330.25 -7632.36
6542.73 -3895.11 1556.88
1715.88 -6933.59 -2202.11
-2266.15 -247.578 -4072.96
575.65 -852.006 2154.92
1443.29 -4813.23 3164
-4433.03 -4457.59 5363.38
-7205.27 -1040.8 -2022.95
432.928 -191.821 -2191.42
-5842.14 2848.92 3490.03
-1356.97 -5075.43 -5861.97
3961.96 -1122.05 -445.705
3230.85 2944.92 3596.7
94.2346 4239.64 -5944.1
785.967 2337.05 1128.96
7094.55 567.869 -1329.01
-354.411 -6631.24 -3555.53
-337.292 1359.52 -5364.8
1864.56 4854.8 1869.95
1664.51 -395.095 5663.55
1131.51 -7194.77 1187.21
4266.72 -3935.36 2640.97
3141.57 1879.95 2166.01
303.248 4288.3 2589.65
-3888.98 446.326 5643.9
3520.79 1099.08 -3059.1
152.267 -1012.56 4314.71
6191.26 3598.45 -3738.97
3335.16 5373.02 -108.23
-270.445 6179.89 3151.39
-4953.76 -4798.09 1024.33
-6132.91 -4970.31 -2464.68
4959.26 -1064.16 5435.44
1112.07 2000.55 -11.6495
-4236.54 -341.387 174.126
-5384.3 -3112.3 2693.48
-4416.01 -1460.72 3935.54
5493.18 5162.6 1302.11
4265.62 2842.16 -5991.06
-1925.92 -4545.77 4509.49
6562.43 -282.315 -4331.89
-1763.44 2833.39 1055.8
1163.67 5717.68 -5411.87
-3400.8 2326 3994.49
-4435.57 4969.63 12.5349
-4378.04 1962.81 -3324.87
5662 -3441.39 1139.16
4180.44 1195.12 -3688.93
904.349 -8138.27 778.148
-3046.8 1525.39 -2004.17
4048.35 -2189.02 -1245.74
-3246.98 4248.43 433.674
1564.09 4096.97 -134.642
708.544 -3498.68 227.084
-195.654 -2468.35 -6433.9
-3404.2 -6920 -122.926
3850.06 -6196.51 3112.11
-824.607 -199.28 -5077.45
1020.31 1478.48 -4625.78
897.385 -7217.18 1405.87
2963.48 -2121.38 2985.88
961.828 4629.16 -403.05
-3961.02 3370.88 -2166.42
589.35 -6624.83 1618
4463.57 2772.56 2900.82
-5145.02 -5469.93 -1365.84
1188.56 6894.62 1180.44
-1177.14 5681.72 2767.47
-3033.57 -4107.32 -4877.67
-2894.05 4982.03 -3002.49
1624.77 6815.05 -2993.89
4912.32 4315.07 -5388.04
4046.44 -426.895 -6896.95
-690.279 2928.09 -3866.89
2511.63 -4264.16 2029.77
2281.7 5860.61 344.821
7787.81 -235.187 -984.801
4870.5 -3822.86 -5169.73
-7414.49 -466.701 -2668.54
-2781.37 -2522.82 1448.11
246.36 5101.51 -4112.37
455.808 6993.31 -4206.42
5057.94 -4492.57 1305.47
-328.126 300.766 2901.93
-968.106 -4040.92 -1156.12
2362.16 -4558.46 -932.545
2597 2245.68 -3922.06
4226.32 -494.21 -4819.82
-2968.21 -2852.11 -6800.75
-5926.89 5319.77 2000.02
-1514.35 6730.52 1489.21
4653.86 6093.06 261.94
-6588.76 1570.92 -2798.17
-3235.82 2829.03 -6144.48
-632.894 3443.35 -7162.07
-3969.46 -4797.23 3035.12
-1613.94 2166.21 -62.7394
-2438.66 2629.65 -6185.56
-5329.49 -4024.54 -2892.76
-6704.49 -2735.49 -4157.58
4781.31 2854.62 1675.8
5334.83 -3896.41 -1042.52
2740.02 -5279.36 4244.05
-1416.19 -6456.24 -2938.83
-1869.63 3902.01 -3235.66
1015.17 6032.11 -1988.13
-5809.04 -3290.9 -4463
1836.05 6828.16 535.999
-6401.25 -2217.64 1202.41
-1136.91 -2374.5 -1600.06
-7108.05 1811.06 -292.596
-5241.6 6520.73 958.201
6915.65 -964.107 -1509.69
-3572.48 1726.86 3699.4
464.526 2069.08 5192.73
4896.93 -4594.88 3520.89
-3067.07 -3801.35 -3910.93
-807.623 2198.07 8148.91
6092.31 3590.02 1459.97
-2700.28 6848.42 -519.307
-3251.78 -6808.41 243.442
5640.36 -1446.95 -2282.36
661.248 3985.98 2416.29
5250.31 4675.54 3652.52
3014.78 -6642.11 685.576
-4376.34 -3250.08 -5875.99
2120.94 256.057 -7420.32
-6135.62 703.685 3235.79
-3823.1 -2155.96 -6711.16
-3689.17 3755.61 1950.37
6950.86 -738.247 -2026.24
-863.566 -6574.56 -2576.04
3412.03 -2450.9 2673.88
5424.13 3274.39 -2062.23
1239.6 -6684.34 -3514.5
3028.44 4210.2 -5009.21
4843.27 -1928.32 -3819.44
2622.82 4443.88 -1842.5
-821.68 -1481 -6656.82
-2075.29 772.637 -6172.43
-4326.8 3985.42 -665.504
353.76 6252.66 818.208
-5916.58 2693.77 -162.037
5966.54 -3183.41 -4218.15
-4375.96 -2622.83 6729.54
-579.689 -3420.79 -6583.17
-5212.06 3461.05 2551.77
2622.44 -4685.19 304.428
-5059.36 -2101.77 -5501.8
3278.61 -4635.23 -185.216
-2009.06 1493.31 -7647.26
-2584.86 3518.44 140.594
7033.25 928.816 -1083.54
-1162.32 4369.46 5314.69
1835.88 -851.932 -7820.54
-6849.34 -1791.48 168.275
-1365.34 535.647 -2192.17
2146.09 -196.8 -3569.07
-1039.22 -6860.92 4078.99
-359.755 -5210.26 -6212.48
-1114.08 -5253.86 991.362
1904.68 7397.83 3536.07
-1780.8 -2467.52 -4428.28
-2452.58 2023.61 5223.49
-1942.66 624.634 -6847.7
344.857 433.154 -4715.34
-877.75 1223.76 -2571.38
-1769.96 3969.99 480.985
252.539 1323.3 -2871.14
4707.31 -1690.75 -2993.63
5213.65 4892.35 639.005
681.4 2490.35 1614.99
6610.02 5148.67 1057.94
1571.12 -5121.29 -3472.06
-819.032 -161.447 -3839.51
3717.32 -182.768 -1147.82
3731.69 -3469.12 -4755.47
-4129.3 -5103.17 481.742
-3057.14 -2952.56 3849.84
-2665.91 6228.84 -2159.81
7.01917 -2590.02 -2132.44
2886.2 7143.06 1337.36
2160.55 -1849.89 -5951.54
-5857.71 3592.97 -404.104
-1178.82 -116.845 -926.424
-475.086 6850.99 509.119
-4399.21 6991.41 -513.632
-4930.12 -5041.84 -4617.46
-3266.53 2279.34 3765.69
21.4369 5180.55 6339.11
6643.99 63.7371 -4458.65
6315.9 2927.89 -2122.46
4155.01 3458.45 5386.52
-91.047 3045.84 844.665
493.758 3969.49 403.603
-430.025 -4120.49 6611.79
-884.338 6864.62 1088.33
1909.59 -7257.08 -3154.98
-4778.8 4030.6 2743.1
1598.75 -314.389 -2298.46
-5247.45 1470.52 5174.4
-5432.24 5191.72 705
-4240.21 4605.66 73.4978
7440.96 937.539 -2866.4
-4344.16 -4659.1 3467.68
-4538.86 -3109.39 1491.4
-5368.88 -2071.1 3586.36
-957.736 -3761.98 -882.352
662.095 -3335.54 6215.41
-475.881 820.301 -6943.69
-5508.2 -3450.36 -2626.13
-6201.32 510.777 2764.47
-1123.55 4496.87 -2009.56
-2943.44 -4960.86 2728.47
-3672.59 -1452.53 -1880.14
5871.32 2426.71 4007.73
-47.799 3974.24 5578.5
-4973.12 3656.06 -688.64
-4733.99 1053.3 1068.34
4825.45 6.83892 5817.13
2434.53 4834.25 -4135.4
3471.53 2841.64 2188.49
3851.23 2933.11 3248.62
1168.36 -3132.36 -417.131
5532.95 -2577.98 -4991
1469.45 3570.78 -6938.72
4527.63 1463.81 876.044
3060.05 -3564.66 -4782.31
-3251.46 -781.774 -6674.65
-9.67746 -5430.54 4758.45
2821.81 1270.77 -951.884
7457.36 1964.56 3355.48
1394.68 -7447.76 1254.63
4822.26 3851.86 550.891
-4629.62 1682.67 -2943.24
-5843.34 -1766.14 -3286.1
1255.88 -5007.49 -2790.99
-4103.93 -5531.49 -2834.25
715.357 4363.19 -1782
-6530.01 975.563 4518.78
-6057.16 -586.721 2309.88
-2514.85 -5890.55 3339.93
-3234.72 7431.71 -1308.2
-5627.07 -3041.24 -1391.67
-413.167 6714.64 2100.85
5295.84 -744.775 4550.72
-146.848 -2163.37 -4142.01
-4128.07 279.477 3771.27
1521.75 -5470.09 5312.43
-803.647 2805.85 -5212.08
-7202.8 -398.315 2543.15
5847.92 -4428.91 -2305.56
4867.15 -2793.76 2061.08
4107.57 -7068.67 177.194
-621.165 8113.14 -2058.17
-2740.45 1134.89 971.735
-5928.02 1348.43 1317.82
-6313.49 1936.45 4536.83
-1240.21 -7367.19 -1157.32
2285.29 4645.08 -278.31
-4153.63 -4105.34 -3218.92
4421.28 -618.936 -2174.45
3334.84 7712.6 308.874
-467.838 -6293.4 -2691.86
-2023.48 -1702.55 -2913.93
-3005.26 673.2 -2371.96
3707.15 -3405.52 5509.1
-6967.3 -1042.41 2149.72
802.017 -1554.91 2761.42
3047.34 -865.428 -5579.69
-4766.38 -3356.74 3424.37
819.684 5635.23 4007.11
-1674.19 878.649 5899
634.459 -2914.91 343.567
-4441.17 6404.77 -2521.21
1111.57 6936.92 -4277.9
-1184.53 -6749.3 -4694.41
-5569.12 -2960 4760.87
-3136.54 2134.77 -6461.67
563.766 -5730.77 -876.583
-7592.67 -1671.94 -2971.81
-1613.87 -2106.01 5983.79
1713.81 -2103.86 -1883.97
-4892.78 -2176.81 -1696.36
-1087.19 -6699.85 -2982.17
2795.03 -3768.97 2557.83
-757.242 1924.37 2819.82
1281.09 -6011.87 5589.05
-2567.31 1781.59 1811.1
6585.46 -2012.26 -3461.85
-3610.9 5400.55 -1661.7
1906.93 -304.421 3069.33
-3350.19 -2005.77 1554.61
2286.9 529.004 4215.21
-4414.44 6943.01 1679.61
-160.247 -972.783 6200.64
3540.53 6848.61 3522
-744.263 342.754 5583.51
5454.99 -835.546 -6297.87
3155.64 3046.96 -2211.96
536.107 5867.67 2349.75
3529.1 908.198 698.357
-4365.39 -1984.59 -6407.03
-4158.78 -4532.07 -4683.69
-541.449 -6002.39 -5358.98
-3664.41 2608.24 -3147.57
2623.63 -5355.66 -5779.9
-3526.62 6673.44 3628.3
5671.73 -3275.46 3792.23
-1209.04 1155.67 -1907.12
1931.98 3789.14 -2454.52
1089.87 2748.36 -5201.94
-1061.73 4893.47 -1803.96
-3961.86 3412.13 1279.45
-1203.87 4110.02 -1364.65
-1076.53 7584.67 332.472
3018.74 -2124.37 -7011.86
-1342.91 -4454.94 5402.01
-1189.19 5134.93 -349.633
2108.86 444.904 -1127.9
-7668.39 -1848.19 1784.02
2111.06 5447.94 -2605.96
1078.88 7390.16 2854.35
-655.696 -1341.13 6707.01
-3753.69 5969.68 3341.95
4396.68 -421.456 -4713.15
-1465.65 -3564.68 -3216.31
-3093.76 -2733.07 3435.5
1063.01 1203.27 3645.02
-4582.64 -4729.71 3646.8
-371.725 3757.59 -646.106
3415.12 7026.37 2512.8
-5131.16 2466.96 -3784.95
6804.35 1157.22 -4406.96
-1312.21 5741.52 -4282.57
-5057.34 -1695.47 5420.7
2234.48 301.208 3805.59
4540.16 -3412.46 3166.5
4315.51 4715.81 -1575.91
-4830.6 -369.064 -3049.55
6182.2 -2283.92 2511.17
5130.33 1084.93 -3521.86
-3061.58 6577.07 3376.87
-1232.45 2341.89 -4295.49
-5926.86 -1617.95 792.042
-4336.28 -2133.04 5138.79
1114.18 -4450.84 -5645.13
103.487 -6475.13 -5170.93
-2261.16 -1036.71 -7093.86
-5702.88 -1804.3 -5466.73
3196.96 5276.03 -2045.23
3638.28 -2717.23 -5924.75
6967.35 3521.61 1538.54
-2667.39 5634.86 5316.65
-2035.01 2736.75 1629.07
4419.76 2941.56 2568.83
241.481 -214.831 -3877.24
112.365 -516.352 -6697.96
662.738 -5378.07 -915.19
6287.61 1594.71 3313.05
3104.26 4302.49 2852.84
-542.698 -6232.53 -2910.42
3655.2 -1571.29 -183.686
664.81 -6058.2 -4488.84
3271.23 -1281.68 -3026.08
2014.98 -3347.46 1236.01
-306.83 -5559.85 -5669.28
2796.1 -6978.75 -3942.29
2096.06 -5398.75 3761.52
6739.04 245.435 4514.33
-7430.24 3251.66 2058.74
-2791.8 835.247 413.068
1765.91 -5568.69 3514.31
-2972.57 7449.26 -1219.63
-347.607 -4018.6 6369.92
-700.346 -5006.82 1977.73
-1639.89 -4403.17 -2962.91
4008.64 -4711.6 -4923.76
-5599.54 996.604 4411.49
-1672.15 -210.064 6292.06
5608.22 3020.68 5270.43
795.793 -4600.35 -4527.73
685.996 -1115.1 -5616.31
6280.69 418.898 1473.42
459.05 -307.643 6556.63
6148.98 -4892.08 2515.65
6814.67 -257.382 -331.007
-1547.45 -2555.12 3376.02
4841.22 962.985 5137.22
-3086.49 -3528.44 4539.07
-1685.94 -2785.16 -6229.19
-604.7 4741.46 -2587.35
-931.618 3192 6227.06
-2388.53 1506.66 -2530.32
5780.46 -1514.21 3492.99
744.374 2573.74 -7058.2
6189.24 -1085.04 2404.79
3071.61 -1273.68 -2511.69
-889.326 5540.38 3203.15
1381.49 -3564.32 -555.389
6921.73 -2991.28 2141.13
3285.06 596.024 1595.22
3976.52 1088.18 3571.27
-5078.87 -117.674 -924.676
-2442.26 -3596.47 690.852
-6798.99 -1105.6 -413.157
-4169.93 -3621.73 -4148.81
-4602.53 -5200.01 1359.91
3058.8 990.266 -6115
-6805.61 -3533.22 3473.19
5265.65 -112.088 -5144.49
-4159.02 5945.65 -240.961
-3881.33 -5023.27 -4968.29
469.862 -1125.8 -1668.3
-6670.23 -3587.2 1495.22
6387.63 -4992.52 -1572.95
-30.0866 -3528.94 7143.95
2648.22 8029.86 -365.788
6.40829 6489.9 -4011.09
-3193.89 3951.25 3432.15
-3366.97 3668.65 -5147.57
3560.08 -4861.44 -176.511
2204.02 6286.78 -646.652
-6661.77 2820 577.594
-3056.09 -5916.31 3242.47
1501.86 -610.201 -1306.29
-3565.99 -5472.39 -4025.27
-368.609 -5279.29 -5218.07
-1191.77 7262.97 3888.71
-1387.23 436.94 7796.42
548.95 -1627.18 1713.83
4667.05 -5716.83 -3904.83
4406.4 432.102 5485.08
-4762.31 -4150.12 45.3794
-5465.88 -2294.88 1984.18
-5065.83 3277.75 3508.78
-3691.37 -555.207 6291.95
2423.71 -588.537 1076.28
-4192.93 -3535.66 5630.91
-4584.49 202.03 -7019.21
3960.89 3236.15 -814.089
-2554.92 -3543.51 -2560.02
-2197.92 -109.345 -7782.27
209.094 2233.39 2285.62
1717.48 -6574.94 224.993
1611.28 -2267.87 5189.33
-1257.81 1647.65 -3108.64
-2433.4 -6333.45 1173.93
-4746.83 611.261 37.2245
-5546.89 -5817.79 1342.06
-155.528 2905.2 6950.6
-28.0217 2314.1 1504.22
1530.62 -3270.42 4526.45
-1177.36 -7463.92 637.977
-8020.67 1752.97 -1239.79
271.993 1569.42 3979.51
-6723.79 -1874.6 3142.48
162.571 -6139.43 -5669.24
-2541.62 -5157.85 -5925.12
-4843.64 -6372.44 -2427.83
1965.59 950.195 -1391.75
-1318.43 2214.44 -838.908
5941.78 -4464.16 758.539
3086.7 6084.04 453.359
-2270.81 1720.16 109.374
-2398.75 -6617.27 2469.94
432.015 -658.894 5812.09
-812.671 -933.375 -6375.04
-3404.55 6248.19 4339.4
-3484.92 2797.17 4183.07
-1156.96 -2616.13 1767.11
-594.225 -7285.69 -3130.01
-6624.28 1646.32 4711.1
-982.695 4419.63 -5261.76
-3018.33 5271.61 4676.41
-3143.09 -6713.31 -1026.43
2807.08 -73.8695 -29.4981
-5744.38 -1959.81 136.282
-2506.14 7682.46 1151.36
-1519.71 -3835.88 -2077.03
-5343.3 1521.03 -290.344
-1512.29 -3131.91 265.517
-356.975 -2173.22 805.044
2474.16 -2797.78 1200.48
-7041.48 4286.22 223.366
-2688.54 -3964.3 5946.02
-3614.22 6172.68 3631.17
4595.43 -197.047 -2307.83
4797.76 -3608.09 -4450.52
-2897.2 7366.07 1251.71
-1473.36 5999.76 -4420.23
-3209.8 -5188.79 115.466
-2330.29 7690.05 -1102.24
-5997.84 -2209.05 -595.393
3753.87 -3905.77 -270.81
4987.03 -5852.7 2314.18
1029.71 5140.91 -6080.74
-4425.9 4323.56 -1002.21
3746.44 2871.38 4503.84
1515.55 4229.97 7062.21
-4670.27 3848.45 -2444.13
-4196.29 4271.08 5027.06
-967.084 -3199.21 1667.97
1452.18 -3271.75 -961.15
-1240.38 -3084.99 -6811.88
-4451.64 932.259 3767.71
-3068.68 -3821.3 -1860.92
-7064.84 -2845.91 -2617.97
-6531.85 -1696.92 1231.53
163.182 -1211.83 -5239.43
-2340.65 -275.543 -4757.01
3541.37 -2925.47 -6087.37
2113.82 -5045.05 3215.08
-5154.65 -6549.83 551.077
-3861.77 1315.38 -2110.76
1178.17 -3188.01 -5429.42
-4754.21 -879.441 5086.87
-988.053 3843.57 650.387
-3503.87 4451.32 4630.6
-3810.14 -3869.78 -2076.75
2429.92 5194.67 4397.49
-224.494 5133.97 5759.53
-3246.53 -6869.91 1710.85
-5074.7 -4867.03 -2094.37
1348.55 -3590.29 996.714
1737.71 -3776.52 -5400.25
-2529.57 5187.63 -4946.02
-4606.84 -142.751 -4129.78
-3715.86 4479.86 -5186.66
-1940.46 7905.16 -1553.69
4465.17 753.71 3356.02
61.6304 -38.1488 4767.13
3615.61 1646.81 -4615.32
3864.26 -770.737 -5722.25
746.872 -5928.76 -1575.73
-740.42 -875.938 3954.86
-755.37 3017.22 -4687.89
-3125.5 -6673.93 -49.1564
4577.14 2465.19 4050.93
1163.84 -2164.1 4975.49
-3381.29 5580.53 -507.29
430.822 695.379 -1205.93
222.795 -876.43 4654.96
-580.071 4498.07 6481.03
1813.03 4538.61 -4381.45
4217.14 615.757 6583.74
-231.93 577.584 -4086.82
3048.26 3317.16 -5510.5
5375.18 1099.71 -2094.08
3661.95 1753.33 -2275.13
3066.92 2357.06 2990.15
-7317.61 890.534 -999.351
-4328.11 1290.22 3481.65
4997.28 -1834.6 -3918.64
-5596.8 3033.29 -2388.11
-96.1513 7377.02 3439.56
-6316.6 4014.08 246.572
-3834.3 4683.25 -297.809
6224.16 -179.692 -1057.13
7845.13 1176.47 2129.99
2784.69 4070.47 -307.525
-3062.14 -6896.47 2407.46
5140.05 2350.59 1493.9
7875.53 709.539 2084.84
306.247 -1566.3 -6594.85
2502.1 -3958.53 4354.23
-3867.91 7326.16 -75.3007
4324.56 3124.62 1995.08
4886.97 2180.18 3186.69
-3481.35 4258.09 -1359.19
97.3897 -4560.14 -2215.95
2002.54 -5311.02 2980.39
703.172 883.428 1431.94
-4610.14 -5005.38 549.982
-1828.76 6623.2 -4618.45
4455.29 125.737 -1429.47
-1064.31 -3193.95 -4238.39
-2042.45 6340.59 -2415.22
4529.99 -6042.69 612.385
-2538.07 -2152.83 4107
6511.91 -1972.75 -4379.74
-5680.02 5348.14 2146.07
-5738.33 -4980.61 269.266
5213.75 -1589.63 -2798.95
2292.65 5951.71 4095.6
2021.6 1981.7 6552.91
4507.32 -5462.81 2794.87
-3723.41 1180.4 2269.55
2372.64 -1130.48 5547.83
3851.33 -6756.08 -2845.28
1904.25 -4122.09 -3401.65
231.668 -3519.85 -5670.6
2302.01 -2735.94 7046.99
-3928.44 2435.65 -3558.85
-3248.53 -3691.71 3810.67
-7651.64 -766.126 -1415.53
-2553.29 -2961.8 1203.37
0.59525 5769.87 6183.52
235.726 -5778.03 -1120.15
1198.37 6415.6 -3790.53
1376.29 -958.734 3528.45
47.2734 -762.147 -5892.52
4482.32 -2018.57 6258.07
2853.02 1666.16 6660.14
1813.4 2095.65 -7000.94
1966.22 -10.0167 -3526.3
1199.2 5059.04 226.232
-1164.88 -7411.37 -2554.48
-5246.67 1473.65 -226.773
-4385.17 4407.2 670.504
-801.711 -2279.4 -5733.85
697.354 -4256.53 266.734
5934.08 657.468 -4560.53
-1154.72 -1915.69 -2895.18
-1690.64 5419.44 -1806.55
3366.55 -3234.03 3608.75
-5360.22 880.796 -484.05
-1400.11 7670.9 -152.812
2539.36 6289.95 1703.85
-1663.87 -800.535 7220.24
471.221 -5933.98 -4513.8
-4420.03 -2794.2 4867
832.47 7592.52 -2777.47
2312.5 -2564.31 -1040.65
1502.22 4535.58 -1869.75
-7150.59 -1425.06 -4079.81
3053.26 -6887.2 1055.42
2841.43 -6744.52 -4000
-450.972 91.6031 3699.47
2255.47 -3857.21 -5028.71
-4931.44 571.181 -4920.11
791.081 -5616.32 1015.59
-2119.33 5735.3 4126.1
2300.87 288.56 5738.9
-643.717 2679.01 -914.02
279.894 -3105.23 -3898.51
3859.79 6185.85 -1014.84
-2447.36 6117.82 894.918
-6214.09 330.384 -1796.08
1371.89 3386.13 -847.803
842.6 279.787 1076.94
5444.09 -4360.43 -1237.21
-4070.75 514.946 -3800.93
-699.69 -6058.52 16.0258
-93.3318 -5.87796 -2366.15
-7698.41 3285.66 -1392.05
-5469.59 -1556.53 2324.46
2182.6 -535.834 -1968.16
4538.55 -3723.54 -1968.27
1297.65 2563.15 -6048.91
-3740.49 -2207.29 5407.52
4775.53 6199.38 -3098.36
1017.33 3327.45 5758.88
-44.3441 6357.86 -4297.66
-6219.88 40.4644 3666.51
5155.2 6097.37 -374.823
2072.32 -6082.69 4410.29
-1020.16 7192.85 2109.66
4568.79 2119.55 -4561.92
6030 -4144.67 1836.41
1196.51 4667.28 6415.42
1139.48 3010.97 -5784.86
-1798.49 -333.835 -8187.49
-1487.08 2102.55 4377.45
308.863 -367.441 -8267.22
3011.71 -1652.44 5102.6
-1110.84 7156.42 -3764.84
-878.064 -7698.31 -2935.77
2510.21 -1773.46 5699.61
-945.722 731.485 -6063.78
-2426.68 1258.24 7696.01
298.474 1967.7 7530.64
3298.52 -3520.59 -2621.8
-98.8816 3868.57 -3965.38
4636.28 -5509.5 -3163.69
-6799.49 -1487.5 -2301.31
5635.77 4815.59 -1151.37
7712.62 1443.19 838.364
5939.27 5040.18 -714.524
-5182.53 -3558.7 -5345.96
-647.905 -7422.43 -2355.45
3723.98 -5052.47 2558.29
2554.54 3480.96 -2571.41
5360.6 920.233 -6031.23
-3853.92 4237.71 -1089.94
-699.88 -4910.2 -12.3615
1136.45 2812.75 7667.63
-4619.81 4528.92 4239.96
-432.881 -1416.54 -779.081
1127.9 -2063.37 -7087.83
129.626 8403.48 -521.845
1937.55 1039.92 -6209.09
1105.19 4920.12 6819.83
-3154.85 -4012.77 -3096.71
4566.07 -7017.06 847.355
586.077 -678.049 -8172.25
54.7383 -2315.87 5162.68
713.777 -2282.98 -7759.78
7493.39 -215.801 1683.62
-3492.58 -6199.4 4073.91
6792.27 -906.108 -4156.72
3782.7 -1549.76 839.429
1449.56 -1043.07 -2923.32
2144.27 3568.48 5611.81
-2281.82 923.254 4119.62
-5760.49 -784.474 -5286.49
-1417.21 -2164.45 -6137.85
1096.46 338.002 3785.21
-1403.84 -246.246 -1662.01
-208.56 -6813.75 -2992.68
580.223 -5358.06 -3869.9
-764.131 -448.894 -4981.46
1695.61 305.054 -2716.58
3501.86 -953.716 606.487
1405.85 21.7692 70.5399
-2557.7 -5022.9 -1703.82
-6162.28 622.349 -2739.51
2408.26 -1841.7 -3481.87
2299.12 -4376.18 -5988.95
1389.04 -4217.3 6877.81
-919.813 4704.46 -5719.64
6452.81 1830.75 2025.92
4249.99 -1260.13 1242.42
1488.71 1077.59 -6635.23
-4892.74 -685.12 -5140.33
-2381.69 -7796.09 -857.626
-2148.98 568.107 5571.84
631.384 -438.535 -4213.8
-660.943 -2485.72 6116.95
2607.4 3252.98 5934.42
-1409.24 -1504.91 -2045.17
6233.13 2991.21 -557.245
4172.34 1473.62 -427.673
-6067.67 4785.05 2103.85
-4026.01 -925.705 747.449
2428.82 -3192.57 -4761.34
-1269.94 -5102.54 2397.37
-3148.44 2535.06 -6268.18
-1319.46 1566.88 7006.57
-1259.47 -3747.85 6653.79
-2054.67 -531.682 5851.64
3751.06 -4383.06 966.99
5982.88 -664.321 2043.41
4221.78 4692.7 -1523.17
1034.5 4893.33 6588.3
-1535.46 1236.48 -5137.06
-2554.17 -2077.66 7583.41
2696.4 214.334 1301.4
-3760.19 -2956.65 -3599.35
3728.72 3793.06 -4033.4
1860.73 3292.11 2096.41
5223.67 -5915.84 2073.42
-4763.31 -746.721 -6578.06
5038.1 3993.09 -1034.72
-1501.29 -253.875 351.043
-641.362 -6893.15 -4856.85
3524.23 -1408.53 1084.77
2500.38 362.439 -2358.36
-4292.02 4099.13 5394.92
-2370.08 637.228 888.017
5095.2 2075.98 1633
-3174.38 4608.09 -2393.3
849.095 -5393.2 5852.82
-3656.71 3920.49 5790.19
327.897 -6026.81 -949.051
-4050.77 -1688.53 -4350.25
-1529.75 232.289 2333.81
1929.76 -6218.48 -593.953
889.436 -1375.19 -5173.47
-1820.37 -7304.59 2275.49
-1360.89 1523.31 4748.68
6190.06 2935.97 1222.24
2491.44 1747 3854.22
-3674.74 -2176.06 4935.6
1171.91 643.142 -2658.06
-5477.39 -4848.07 2996.63
-2351.36 1371.34 -5573.58
-2136.1 -2362.94 -2296.83
-3159.94 -3546.25 -2725.89
-6724.34 -1780.38 -2972.18
-2165.27 3889.98 4993.73
4932.74 -3313.47 -2392.46
-570.633 -7568.62 -1637.08
-1157.31 4943.93 -2628.68
5045.86 -2070.23 -2500.18
4496.03 3269.83 2453.58
-3531.08 -5126.99 3954.71
1525.81 -4392.81 -4763.46
-3005.67 3912.02 5190.27
2994.15 -91.9515 -39.9047
-3052.28 1678.19 -3494.42
-2314.35 -3054.92 -3083.13
-6859.63 -1592.27 -3338.04
-2699.3 -4759.46 5470.44
-1622.23 357.871 -251.387
3528.13 299.741 1334.85
-1005.55 -2753.32 -2836.18
5496.2 -1430.17 -5158.37
-6056.83 4370.53 -1417.83
-5001.18 -2566.4 -2844.39
-3442.56 2067.49 -3271
2221.26 -2276.1 1734.67
5052.71 -2836.72 4675.03
-4865.12 -3423.11 162.832
-3460.2 -1518.59 -7576.26
6371.16 773.104 -3507.78
-5917.52 -448.202 -3716.38
4317.16 -7237.13 -496.279
3487.93 6415.26 -2603.08
3449.93 -5544.94 4378.34
6292.85 -5178.63 -376.804
5632.13 3696.15 4083.99
2299.13 -4007.15 5534.46
4043.02 -3047.62 4065.52
-4989.07 3890.23 4935.83
6739.36 -2443.25 -3292.59
-2137.44 341.825 -2617.74
3316.29 1686.61 639.596
-178.174 7815.02 -285.913
-2409.77 4947.15 -5089.76
-6825.77 -1253.73 -596.91
-3745.02 -4585.77 686.004
-215.735 -594.577 6848.47
5666.53 -5778.28 35.0882
-2193.88 2543.54 -649.891
-3310.99 3290.88 6236.12
3120.69 -4686.47 -2003.27
-489.103 7070.44 2667.41
6201.79 -2645.35 5125.87
3534.61 2543.65 -83.2416
1270.73 4528.44 -537.378
2921.09 -1300.78 199.298
-2628.33 -5552.76 -889.375
6065.1 794.955 3036.05
366.286 3953.22 57.1522
-3524.52 1655.01 5911.8
-6898.65 -3310.38 -44.547
1518.11 6460.36 -4016.11
-7519.27 881.444 3183.11
1180.03 256.392 5003.02
4178.43 -4200.42 3807.26
2623.82 -6635.32 -3897.78
-5415.73 1825.9 4860.42
-931.841 2806.63 -2758.13
7254.29 679.514 3626.32
3885.13 3285.24 -6307.52
1753.23 790.944 3437.68
153.294 3875.21 -3236.42
2255.58 -3305.36 -4943.13
-246.158 -4551.07 4236.38
981.99 -600.167 -4935.78
1183.25 -3933.16 -6617.19
753.463 6822.43 -1422.55
4310.33 -1923.73 2526.38
46.716 1456.44 4679.87
766.093 864.818 6911.21
2146.89 600.998 4527.69
-1687.07 2529.66 2131.52
-5075.92 381.757 -221.878
661.261 -4969.54 -303.378
2306.42 -3696.9 5148.53
-4062.07 -272.824 -2969.71
4216.05 -2575.47 -1605.97
3394.01 -1313.9 4177.45
2125.09 -1112.89 2644.12
-606.952 -4312.66 -3684.84
-4470.2 4272.48 -891.574
-2291.38 4426.46 -3739.87
4602.65 -679.528 3446.23
-3711.54 5411.94 4936.45
2155.07 3044.98 -3056.39
6970.23 4455.91 -1090.33
-780.412 -1627.35 7819.02
3979.72 -5524.7 -1360.51
-1074.05 3255.4 85.0494
1259.3 6179.61 -1546.37
-800.11 -3723.45 6518.4
-3815.75 -2844.32 -2959.21
2642.76 61.3581 -5228.51
1181.43 -2615.78 -5080.83
-4435.49 640.509 -3123.26
-2141.58 -570.82 -4567.41
-2983.73 2528.18 1083.04
1463.43 -4280.32 -6936.05
-7299.25 -1175.52 491.691
2283.79 3411.17 -1415.62
4007.34 -3625.4 2804.06
5571.29 -508.67 -5830.87
5085.2 1813.45 4683.7
3840.77 1277.08 -984.104
6522.24 3537.88 -293.489
132.9 -7268.73 -1728.37
-4184.51 -5581.4 -2017.25
-3702.17 -7079.47 -209.038
3253.04 4905.07 2026.61
4641.47 -2516.29 -2107.45
3494.31 6409.68 983.077
-5989.8 4431.92 -3979.04
2216.72 -3935.18 -2747.77
-8011.65 380.314 170.827
-1528.9 5178.15 1591.36
5377.5 2692.53 617.708
-2694.67 671.415 -1486.17
3697.88 -517.977 1082.74
3403.88 -5523.67 -1007.59
-4113.05 -3013.46 -5075.67
407.912 7703.25 -510.846
-2169.04 -1837.3 5047.61
3634.96 -6697.73 -1320.37
-4247.33 706.386 -5290.43
-3217.21 6511.72 3880.99
3796.62 1709.59 -5136.99
-3620.64 -3386.53 -2160.66
3871.77 1000.42 3325.88
-1714.74 7568.47 2220.73
-5297.66 -3678.24 -3191.8
1078.65 992.181 5828.57
-3540.37 -3711.2 -961.838
-177.358 1168.16 4151.63
6161.98 -3460.07 -3347.95
987.858 -4663.97 -1939.61
-4983.02 2121.29 -2871.14
1539.81 536.876 -5483.83
856.658 -6884.48 4008.35
1375.02 4059.78 6505.24
-3912.54 64.6232 3962.55
1716.33 -2697.66 4238.57
-3582.36 249.28 4037.12
2188.46 -2967.08 4069.85
2034.96 -352.542 682.115
-7547 203.099 -739.256
-5662.28 2104.57 -1346.63
2918.78 1859.83 7027.97
-893.878 4088.48 1735.42
-1558.64 -1387.21 -5984.72
1834.52 -922.766 8157.07
-5170.43 -6503.99 1516.9
-6642.46 484.641 3570.42
280.117 5651.69 4066.97
-4048.78 4865.76 -1504.53
-4063.07 -1799.71 6072.7
5610.89 3387.4 53.3556
681.313 7332.89 -355.881
585.112 -3706.08 -3825.19
-4005.87 6180.1 -4219.22
3771.38 1481.98 -784.777
912.794 2686.87 4132.48
610.269 -5291.6 -1020.82
-3184.69 -4060.28 -1765.14
1096.09 7388.69 -671.318
-2524.57 780.056 -5068.32
5318.35 3269.27 -4304.87
125.391 -4473.83 -4626.04
-2311.07 2367.53 -1572.75
-5937.34 627.729 -2136.77
1468.6 -1323.35 -5504.87
2455.33 -4505 6264.4
6650.46 -207.468 667.055
6139.1 -636.834 -622.092
2137.19 -1899.61 3021.59
406.409 2082.29 -724.254
8284.32 -844.374 -1235.7
3188.39 102.913 -3386.89
-5285.28 3812.85 650.841
-2891.42 -2549.96 7251.23
1254.91 -3905.85 -361.204
-1296.69 -4926.03 3476.2
3328.36 -2951.07 1268.93
-5051.59 -3211.72 -2787.87
2636.73 5479.01 -1549.95
-1985.86 3382.12 2365.81
3186.21 1875.78 1860.44
-929.862 7355.85 -728.377
3445.5 -5566.26 -2514.46
-677.489 4162.39 4468.72
1805.85 -5267.47 3324.57
-2456.21 3591.48 1894.99
-510.892 6118.21 -350.398
-1403.34 2143.41 6852.11
-5811.39 -2567.59 2238.25
-5267.93 -856.985 -4238.18
2525.36 -6473.66 -1490.86
-433.227 -429.868 -6399.38
-3470.28 -742.27 560.143
-6416.1 -1971.45 -5102.69
4322.14 699.35 -5282.19
-4078.43 3931.42 2360.83
183.395 3132.21 3309.7
-2313.12 5224.34 -3593.83
-212.495 6686.11 -4534.59
-493.663 -702.53 -3873.52
-2076.93 4327.19 3884.21
4924.07 1720.04 -3484.32
-266.231 897.78 2173.25
-3430.19 7084.66 -1102.41
1475.98 -1627.83 -2916.3
-6932.13 -4198.42 708.363
5452.08 -5715.21 -82.6139
6780.1 -3200.58 2479.83
453.352 1869.23 1064.5
1339.27 -1442.9 7420.03
2921.32 -3162.79 -4280.55
3217.49 -5608.04 -5425.01
-4629.75 1509.57 2276.06
-3416.95 2986.82 -931.262
-1562.58 -4173.91 6125.84
-834.426 -6385.79 5395.11
1319.97 2734.03 -7136.77
4394.96 -931.724 6279.37
6276.51 -195.93 4637.07
3140.86 3674.32 -2353.35
4485.66 -1305.21 -3540.44
2111.5 4552.24 -4793.04
5074.55 -2370.86 -644.478
5328.16 5294.71 1469.74
2223.28 -3105.82 986.269
694.542 6714.15 -4779.7
2057.77 2609.11 2788.57
-162.86 385.621 -5907.36
2120.86 443.41 6524.33
2754.33 -3570.93 -3280.87
-5579.16 3615.13 -1099.5
2276.37 443.292 -4304.79
-4753.9 -5833.43 1089.39
4732.37 3361.11 -696.463
2741.24 5256.02 2298.26
3100.85 3351.09 -2231.84
1125.19 -2394.58 2697.23
6344.31 -3180.7 1237.81
7615.68 -259.852 -3647.06
4516.96 4688.9 4998.81
-1684.77 1522.79 6229.05
-4360.02 -3876.36 1080.14
-3894.63 3593.14 -4495.14
5843.17 2708.82 3745.01
1279.05 341.488 -1533.21
1021.84 -3641.55 -5344.31
-2479.34 3173.68 4678.47
4829.84 721.789 6550.94
3515.4 5327.16 1644.08
2765.26 4866.44 -3422.11
3050.93 2313.92 5751.45
-1963.16 4614.82 2451.39
1192.53 -6364.52 -2874.94
-2629 -2614.82 -4061.28
-1826.88 -6284.98 5160.51
-3775.94 5730.42 1987.66
-1686.8 2093.65 -1302.86
-4435.35 1663.71 2290.12
-4391.03 893.072 540.416
2333.26 1161.25 5871.03
-4179.08 -970.616 2121.7
478.912 1250.41 -7362.36
-2113.44 -1637.47 2274.02
5083.7 2427.18 -4562.27
-1126.18 -4415.24 -4861.73
5778.76 -306.274 4531.34
-2180.82 -7572.24 2795.42
-4114.61 433.764 393.856
3878.12 -3266.4 673.655
5015.76 6736.94 722.991
-1029.85 -7292.79 1512.7
2907.88 81.0293 5597.46
6546.15 -2640.21 -3208.81
2577.49 3678.97 -2281.05
-3894.48 -4690.88 4753.22
4999.37 -2934.46 1007.9
-3403.73 5959.43 4478.44
-2082.52 4533.59 1890.18
306.136 -3342.77 2928.94
6525.08 2030.14 2352.68
-394.344 -942.363 -4329
-2652.84 4153.9 -6869.57
-6674.4 1473.16 4285.99
-4263.3 4295.43 1945.3
5376.86 -383.489 1182.27
-194.206 -2358.41 -5287.6
349.049 -2637.71 667.785
-3864.96 -210.166 7045.73
-6453.25 4026.53 2841.15
3992.05 1653.41 2151.53
1199.35 6836.06 -590.367
1742.89 -5137.59 -3830.82
5283.61 2081.03 205.875
-3353.98 -1434.88 -2642
6532.91 -3896.08 3037.95
184.435 -3879 -6931.79
-5538.79 551.784 -10.9675
-3970.57 -5995.74 -2690.61
-3667.49 -3875.76 -1966.58
-2953.88 3361.75 -1231.76
1122.14 -1731.55 -3713.33
-1220.81 1881.02 6783.33
-1133.69 3061.76 5426.03
639.722 -7985.6 2683.86
5490.61 1280.61 -5825.53
2292.26 -551.123 -4195.34
5362.26 -2905.62 747.437
2288.29 -5387.07 2347.93
4040.04 -864.885 -3180.84
2090.26 -3874.28 6599.78
4764.73 -350.249 4926.51
2300.95 -6557.98 -4124.61
4291.29 5883.21 -302.165
-3461.27 -328.503 2810.77
-5741.65 2396.83 3252.64
-5884.99 3753 -4061.36
-5513.93 -706.962 3573.76
-2094.99 6148.03 -650.767
-5668.48 -51.0231 1291.25
-1293.09 -1945.41 1812.19
1310.37 -6154.12 -804.599
-1974.67 529.611 2483.98
-7222.03 3144.62 -2263.02
-160.911 6672.46 -3989.67
-7369.66 -3120.63 2564.91
-7495.17 3016.92 1566.66
-7187.06 -463.17 2871.58
5256.28 817.058 4148.44
1317.63 -7843.85 2320.89
-107.129 4729.01 5890
99.0623 7871.77 -395.138
-4738 4039.71 2967.32
3374.48 3695.6 2831.36
3681.99 451.882 -4851.59
-669.575 -6730.49 -4195.44
3581.5 820.79 4562.24
-1951.18 1323.69 1414.89
552.977 -3801.84 -3389.51
-1467.25 -789.424 7331.89
2837.31 861.895 6429.35
-5064.59 -5215.41 -3893.25
-5005.81 -2281.01 1665.54
3666.73 1819.37 -901.09
427.967 -3414.98 1674.28
6561.35 2768.85 -3586.06
2130 3352.59 -5315
2138.18 1456.94 -2028.38
-7413.77 -449.754 1032.68
4389.86 -5040.75 3134.97
-7696.21 -2372.65 898.01
3436.72 -6539 2677.78
2152.84 2410.98 -610.903
3581.89 -258.487 2626.74
-4020.1 -5321.77 4587.74
3194.18 -4298.81 -1220.3
-5070.69 -4151.5 1404.55
899.016 -1051.05 605.659
2133.22 6577.87 -4559.14
3673.35 7024.79 2878.58
2799.47 6586.58 -2701.68
-4744.07 -61.5642 -4952.14
2535.63 2521.72 -3913.11
-2635.51 5951.03 435.392
-625.298 -4158.96 5881.42
-4291.44 1647.62 2484.08
7087.14 1820.35 -3909.23
-2147.78 7262.96 -639.967
1400.08 1298.58 -6618.25
-2077.63 5932.12 -2317.17
-2693.29 -3193.18 2023.87
-5311.87 -2925.47 -1.86552
1131.51 -129.764 3466.11
7821.21 -2564.75 1855.91
562.994 4822.3 -6682.42
6078.6 51.3826 -3943.48
-397.534 3239.51 1631.05
-1108.66 7961.54 880.12
-7752.75 -1857.21 -284.553
-2780.67 -1398.44 -1217.58
1025.55 4282.62 2073.32
-5843.4 3883.22 -4539.75
-2929.25 5129.58 -1521.3
-4783.02 -2859.58 -1140.26
-1338.14 4531.76 -1678.71
3795.17 -2099.9 -6228.58
-5922.41 2869.12 -1548.43
3484.71 -1948.73 6617.42
-2576.35 3477.15 -3910.97
-4997.19 -2644.01 -2238.79
1824.09 -3102.04 -5459.77
-1711.83 4655.39 -4779
-6541.97 -49.4412 1621.1
-4270.56 2528.15 -4009.78
2681.01 3939.54 -115.111
5415.21 -1075.75 6436.16
3532.62 -2130.79 1558.18
-1720.39 3792.86 -3464.67
2868.64 -64.0758 -4770.54
-3901.91 3438.73 1085.44
2359.3 -3237.18 6483.41
5399.54 3550.99 2638.79
6731.85 3919.47 557.041
-1883.26 834.674 7981.29
-3947.1 -4132.7 -2649.5
-5853.59 -2984.45 1079.28
-2124.13 1613.64 -3981.99
2172.86 3734.65 -5420.72
-1209.64 1966.51 6998.75
-3820.82 -6252.76 -2152.37
-2677.46 -3606.35 3363.18
6901.82 2769.51 -3523.18
-5580.17 1730.82 449.764
4200.66 -1324.47 1322.24
-6126.7 431.898 -1950.09
3284.75 5898.34 -3764.18
-1514.53 -6422.48 -1516.95
4833.1 -599.939 3376.7
-303.72 -2198.12 -2353.79
-3377.13 -3577.64 -1947.44
6445.11 -3045.17 -3688.4
760.366 -671.871 5243.5
7426.35 3516.78 433.753
-4837.83 -6497.75 2511.28
-2978.09 -1968.37 -286.784
2545.15 -672.403 -3142.72
1153.99 3096.38 1669.76
4099.02 403.765 2007.37
-2776.42 593.8 -5756.27
-2341.5 -5361.05 2071.33
-3172.12 645.982 5877.1
-1531.88 2798.8 2720.45
-3610.94 917.385 -1609.52
-116.174 7758.15 149.179
-3826.08 150.579 -7192.39
6089.28 -5.7642 5690.25
3466.39 6962.36 -10.9434
4577.32 -2106.54 -5522.18
5809.6 2489.1 -2604.91
-2541.22 4380.29 -5836.4
3533.64 6310.49 -3344.32
1702.29 -6015.59 5306.26
5244.42 1785.34 -1570.8
617.739 1613.68 -6220.64
-3850.23 4882.06 648.755
-1186.63 -84.2987 -1540.76
3969.05 -6882.01 943.651
775.306 4627.89 1673.31
747.919 4182.06 -7.74043
-204.735 -1864.56 -6366
863.73 -4157.52 -3511.56
2641.33 3486.45 -5851.59
3891.1 4411.05 -2051.71
690.363 5009.73 -6134.08
-1342.15 -1670.45 -5504.26
791.853 -3415.94 -3399.77
-14.3045 -2482.58 -1049.78
-2929.16 -3759.8 3357.46
-563.242 -4656.48 2745.24
411.286 200.36 5629.05
6611.1 790.336 -1061.23
856.338 5765.32 -778.161
-2061.91 3862.89 2172.15
-1586.55 -4225.83 -6127.49
1994.17 -1831.63 3501.5
849.226 1422.02 4855.07
4444.48 -466.88 -2854.59
767.848 -4229.73 -4057.04
-5291.97 -3835.7 -5126.78
-2733.4 3353.26 -3364.33
-3514.64 -3152.56 3304.04
4841.93 2141.14 4259.18
-3601.94 -370.517 7173.96
2352.35 -939.292 5152.58
2158.19 -103.767 5774.38
-2252.9 -3143.78 -6360.63
-2722.8 -6815 1977.18
7803.21 332.136 -1910.91
3668.85 -7160.03 1460.46
460.787 -912.934 6816.68
2600.16 138.205 -4840.25
2436.2 5915.4 -3155.26
2046 1495.78 7067.26
1074.38 798.987 -1100.61
7663.47 -3245.23 1389.72
-1761.61 2153.79 2958.23
-6824.74 -849.066 -401.096
-1479.99 3564.31 -1449.31
6691.81 1599.62 -2517.74
-2908.8 763.096 2737.03
6980.92 -2088.11 1221.97
99.1796 4650.28 -5124.24
-5442.59 4349.12 -2509.66
-3397.3 2364.64 -5794.93
-1614.89 -5940.09 -3079.69
4174.99 416.075 -2836.71
-7404.7 -2648.13 -1239.71
4994.86 -2024.85 -18.1681
919.673 -4718.29 -604.817
6944.11 -1429.48 4399.73
-7068.94 3344.16 2969.85
-6219.24 -3032.27 1111.9
-1956.94 -1099.38 6387.63
1146.44 -5424.4 -1696.29
5551.85 1585.44 -2587.56
-3552.97 29.5462 4482.96
3201.81 473.008 -7608.8
-4186.29 -547.401 -2527.16
-3638.28 -3048.17 -4880.04
-5851.97 -426.307 5871.16
60.4705 4520.72 -2599.29
-3956.57 5367.49 2661.89
-7953.79 301.262 1327.15
-1089.75 4785.36 6775.4
-4716.3 2843.37 -3082.5
2638.45 -6129.58 4464.87
9.61033 2430.89 485.593
72.2156 -4902.95 -5547.47
926.354 -4356.74 3253.79
-6246.5 -2919.34 -631.228
-5466.75 4490.91 -4345.87
-1773.85 -5492.63 6202.59
-7048.47 4008.15 2226.29
1937.12 1418.47 700.601
5496.53 4670.54 -2978.43
-983.071 -1261.41 -4205.54
-3280.48 -665.928 5654.56
4666.18 -290.621 -1920.28
-3133.22 -1000.42 -429.596
-1873.1 3104.14 5861.77
-360.618 -4876.43 6374.21
926.473 2640.5 -3387.21
2375.5 -6495.48 767.596
3528.59 -4055.59 -1460.15
6769.56 -2522.64 -2751.19
-2160.04 -1358.21 6991.13
-172.593 -252.874 -3270.03
-4652.84 -2486.59 -5042.31
-1665.84 3660.82 5458.21
-6411.53 1254.75 -4482.28
-8162.29 -475.686 1495.09
-3922.35 -2808.32 -115.993
1307.62 3677.08 -2241.96
1141.73 7524.24 3771.45
2197.61 -920.236 -2627.85
-844.175 1860.79 3408.47
-1881.45 -3090.59 4473.39
1525.69 -1002.12 -2771.86
5543.42 -664.409 5252.45
-1461.49 5422.11 2616.73
7059.39 2807.38 3485.49
-3682.57 -4550.88 2509.73
2300.21 2246.15 -6164.9
3080.84 -479.472 -7394.71
-945.779 -7453.78 103.178
1534.82 -3371.86 4860.88
-4540.04 2362.93 668.025
-3789.49 1069.44 -1588.17
-1454.39 741.803 -186.198
3949.97 -840.778 6970.19
-250.379 -3654.41 7401.87
-2389.74 305.552 1264.79
6778.29 -748.993 -54.8539
2895.43 -7793.81 -1285.62
5972.94 3962.31 525.623
-2713.26 6703.81 4348.26
-3378.93 -6449.4 -1274.88
-4528.19 889.308 7078.38
-2027.99 -1750.81 3729.52
6396.32 -1515.98 603.423
6180.14 -4043.04 -3934.26
-1794.23 1743.69 -5730.45
1279.15 -4633.62 -6179.28
-836.508 -661.811 3210.03
-2258.12 6908.33 3848.96
1165.85 -3619.66 -6401.85
-3604.63 -4382.86 -1374.37
-624.1 3299.08 -1951.45
3062.62 1195.41 5032.57
-268.221 5581.32 2733.22
4352.22 -2180.14 -5789.12
-298.826 7485.71 -908.779
1799.32 -4618.92 3208.36
-1526.5 -2180.4 7702.85
-4993.93 1485.64 -1921.6
-173.21 2540.22 4209.55
-3708.85 3682.41 4287.54
593.7 -465.372 -6392.6
-6104.2 1035.12 -3525.81
892.851 -564.759 -8246.18
4552.57 -1835.95 3972.57
-655.278 3375.69 1229.82
1452.12 -1819.73 465.623
2545.23 576.074 -6999.25
7519.42 -2319.77 2960.83
7250.59 1291.84 2894.41
-3698.65 4106.29 6334.06
-4662.25 -3500.86 -2730.7
-2423.08 3956.52 4706.18
-727.885 -5198.76 -418.126
967.559 -1201.4 -1661.78
2468.31 -2181.98 4518.45
-3070.87 -3431.39 -2689.71
6157.6 5207.71 -2084.28
784.429 -2059.66 -5176.72
-3009.39 5712.46 -1875.47
2834.63 -1318.05 1676.49
5691.31 -1920.61 -3936.89
-5498.4 -2097.07 5933.07
-4081.82 -4439.47 2640.77
2333.9 -1012.58 3440.06
-7198.67 -2152.34 3803.47
-3506.2 3529.81 -4647.38
6164.79 1893.97 3082.26
2301.74 3147.65 4033.13
-2758.2 4448.98 -6619.21
-6231.36 -2611.54 5063.23
-1228.49 -4946.75 -1542.79
-5661.03 -3057.88 -4333.48
-5082.18 -3514.34 3263.15
-2688.51 320.019 -8011.3
1947.06 2065.38 -5286.93
7277.82 481.405 2431.24
-5841.17 -5124.67 654.096
-2488.4 -2285.7 6096.21
1678.12 5598.99 5340.08
-4744.55 -2684.58 -643.336
-4375.61 -3426.04 1742.06
-1162.54 -4648.22 -6276.53
5115.44 -1137.78 -915.294
-448.269 1032.63 -3299.5
1377.46 4788.09 2515.91
2152.88 2885.61 6068.56
215.332 6319.5 -536.653
7800.04 531.15 3.6855
684.227 1460.35 5824.41
-5299.86 2194.47 5748.18
342.955 2605.29 -7203.67
-5940.27 -3741.84 4181.95
2.02094 -155.342 4633.67
-2491.88 -5631.7 1182.97
4027.33 3414.71 -3099.37
243.877 4456.73 1413.25
268.8 -4651.29 -6202.85
-996.383 4941.6 -3959.11
-1627.06 5870.75 -1028.35
2137.18 6563.66 155.937
-4790.57 2090.99 -4929.36
-5668.98 -1683.42 -3862.97
1169.06 -4306.86 6949.37
-1272.39 -2533.47 7061.9
7383.55 1175.95 652.888
4332.11 -2041.37 1291.17
-5388.07 -564.117 -2663.28
-3185.53 2755.19 -4391.99
1349.03 -4792.28 -5643.71
-2115.27 -1198.76 -1139.01
-994.175 -413.312 6088.59
3546.67 2200.37 6796.86
3416.87 5312.3 -2267.26
7766.26 812.839 -3174.2
-4827.04 6185.16 -1831.7
5739.6 -965.809 1876.02
-769.002 5381.53 5229.12
-3180.41 428.205 -1070.51
-4883.55 -4654.93 -4258.21
1349.2 -3901.34 -5772.08
-2598.63 -4635.08 3540.75
2727.17 -5070.13 1168.06
2308.17 -1397.16 -1146.78
2352.49 -4061.67 6378.39
693.674 -3691.66 -4245.9
3065.22 -7641.08 1563.83
464.414 -5274.06 -3127.51
-4494.83 5953.12 302.365
-4473.55 237.755 -5252.36
-4453.65 1120.02 -466.359
-3318.02 -4314.76 392.564
3654.72 3916.45 2192.51
-6465.22 -113.97 2871.57
2337.14 -3440.74 -5867.15
1242.34 585.712 2870.61
4489.98 2499.58 5460.85
-4824.05 2291.83 244.767
-1296.1 -5479.84 -2949.98
3964.4 4920.7 -1353.58
-2343.09 1582.98 3027.28
5946.93 -2545.1 -527.432
2950.39 3187.23 2557.86
-88.7559 6863.18 -3650.31
-6979.2 -3762.65 -2791.96
-1429.18 -4666.19 -1525.98
447.209 -3044.88 4977.7
-5025.51 30.4842 95.4613
-2112.2 -2522.59 6050.37
5860.36 -2442.81 4747.61
-23.4993 418.831 -2201.97
4826.19 574.842 -4668.53
7514.07 2095.64 68.8177
3196.12 -6032.75 3200.84
3068.54 6388.95 186.449
-3603.18 -967.752 4647.47
2694.85 -4641.56 -3277.69
-1904.86 -905.385 7984.41
5354.58 3450.12 2755.07
2654.58 -7812.71 -1743.09
-1197.94 3382.14 2115.35
4024.37 1408.46 4987.86
2326.74 -6998.63 -2126.78
4278.41 6699.98 -1745.2
644.532 3554.56 -6795.09
-6399.66 2226.41 2937.98
-418.08 3683.05 -1492.59
140.832 154.895 7620.83
7067.09 -269.209 797.854
1505.07 1055.8 5678.85
3893.94 2928.58 -1849.54
3014.76 1324.21 -1050.11
-2809.85 1424.75 3148.92
7532.56 -88.5858 510.162
-2990.73 -1953.17 -6296.32
-8440.43 -288.705 -653.454
-3794.41 6620 3599.33
3655.48 -4689.85 -3475.92
-1695.61 -4228.73 6368.4
-916.234 -5196.17 -2220.19
-597.766 4455.17 4165.92
4461.03 4514.74 -4622.78
-4692.42 2569.87 -1017.55
-2417.3 7275.46 -2897.56
-7317.97 2430.94 912.589
1854.32 -586.974 3121.93
-7449.38 572.914 3265.45
6793.75 3936.48 1280.13
5721.47 -5161.29 -2764.7
-4252.95 690.027 3095.38
1349.5 1872.06 -2973.69
-3178.99 4851.37 1503.16
6601.14 2072.84 4841.87
-4663.56 -5039.77 4141.62
-7093.6 -4028.11 -561.031
-710.259 7029.42 -3958.13
2364.26 -481.385 8106.48
-69.0612 4839.63 4457.85
-7065.9 2940.77 -1969.31
1917.59 -4636.31 1715.76
666.534 -3229.9 6187.65
-6194.27 2089.71 1621.94
-1652.4 7460.2 -915.014
-103.534 1324.45 7103.6
-497.054 -7244.61 3443.23
-4539.21 -5810.51 -2116.01
-5017.6 2383.06 24.895
-7512.64 -1622.64 2956.56
2609.29 5224.96 1916.76
-6874.9 2076.65 -848.431
6311.19 2257.2 -3915.78
3106.18 -3357 -760.679
1173.05 3037.84 3810.95
2039.9 4025.2 -6311.69
-3503.54 -1865.51 7413.27
6913.22 -171.235 -4465.3
4837.14 -3007.16 2320.89
-4511.29 3279.14 -620.068
-2976.66 1090.33 -6862.87
1607.56 -4303.49 -1719.86
4657.83 -1090.53 5343.18
5759.41 2319.14 3306.43
4018.3 -6549.55 -927.2
4633.48 6086.06 138.682
1476.66 4432.2 -4455.39
4954.32 1691.61 6363.75
-239.245 2985.72 1837.32
3193.83 4438.9 3461.93
6288.31 1654.62 3374.13
1383.89 4903.73 -4142.5
2613.1 1037.21 -6556.44
-1703.61 7468.19 -432.628
-3839.86 -1271.05 -5946.91
1459.39 -4582.58 4628.32
-1108.12 8088.07 1864.97
835.438 -6160.15 4378.84
-1288.8 636.237 3347.03
3951.98 -863.722 1121.91
-3929.29 -3001.42 3779.84
494.737 32.9604 -7745.19
-5312.54 -239.723 -5817.27
2413.33 5250.04 115.339
-595.759 857.343 7298.66
3994.75 -842.294 -7276.33
5092.45 -4832.34 -91.2083
2594.14 5147.28 -4869.69
-2381.35 1124.64 6617.39
1462.55 5264.71 -612.338
2686.22 1514.27 -132.14
2834.74 -1893.28 3535.52
5966.12 304.155 5177.97
4083.51 -2414.81 5706.85
-3644.82 3899.27 4796.55
4242.85 -1914.51 -2189.18
-167.566 1041.65 -4039.03
3885.76 -1492.22 4765.12
-2229.42 -2850.47 -3984.8
-3967.53 1774.76 -1548.08
-8139.13 2372.79 436.676
-1828.31 6483.5 1356.9
-4111.34 2545.41 1308.2
2125.09 6263.6 857.623
-1609.79 -1672.67 3448.91
-4792.35 -3805.3 503.137
-2441.16 -3444.43 -5624.07
-4126.93 -6794.85 534.547
5681.26 -630.726 2912.39
388.735 -115.421 7503.32
-4063.92 5880.84 4231.62
-1187.58 -1352.68 -3018.1
2547.76 4495.25 6025.65
3983.84 5580.69 94.4431
3422.33 -5635.15 -2279.23
-7886.61 -1399.04 -1141.14
-4030.08 4193.14 -6142.55
3132.48 5776.51 2429.54
2205.93 698.834 5294.4
876.356 -2774.67 7795.72
6153.11 1695.25 3488.86
-651.498 2082.99 7914.96
-6721.95 -4211.07 113.795
-79.9605 7005.95 2933.3
-1045 1031.48 14.1077
-1749.28 -1315.4 -6790.65
-6760.41 -1304.84 -531.036
4939.38 -496.003 722.474
-1893.41 7702.99 2810.03
-676.556 -876.97 1315.97
-3454.47 -2053.37 -5997.42
5059.63 4697.35 1187.18
-2262.05 3518.37 6914.94
8009.91 -42.2568 -2081.06
232.387 -1464.42 -3228.56
3037.85 -3471.63 -2598.02
-6867.75 3134.96 -3395.03
-2741.75 -3784.85 3219.62
2419.1 -3910.7 3800.55
2301.44 2327.25 -1181.09
716.381 1837.16 7276.65
-4593.25 5107.4 2340.6
1308.74 6739.65 -3024.43
6413.71 2681.92 -566.026
-3138.66 7169.52 -3090.2
-1989.35 5338.37 -5016.18
-3212.7 3973.69 -2946.63
1915.71 -1397.11 3082.35
5498.81 -2394.06 1692.04
-6091.39 4133.53 1593.49
-1895.21 -3272.89 -3125.59
1588.61 2014.41 -7651.9
-7697.24 1054.08 917.729
-1191.94 -7181.73 -2128.84
-2456.33 -4571.48 -3027.04
3766.18 4159.11 -4898.68
3994.73 4961.87 4655.4
-4066.93 1950.59 -5055.35
2569.45 -7241.25 -10.1954
4574.14 3352.34 855.404
6103.54 859.972 -1820.87
-5177.64 1321.72 -875.218
-7308.37 1428.15 -638.592
-3863.72 6126.45 120.054
899.209 195.903 1378.8
1744.42 -6126.42 5591.11
2031.2 -4954.65 -3183.53
-7344.01 -2644.92 1904.37
-4060.12 3266.13 2486.99
957.874 -5839.5 -1463.33
2456.73 4448.72 -4997.39
7187.87 -2306.86 -2623.8
4278.98 -2383.31 -2400.82
-226.268 8147.89 1144.53
-1505.43 -3256.24 1765.74
-7518.44 929.409 -1401.68
1373.85 -5016.25 -716.961
-478.103 1485.25 2601.3
-1734.4 6349.19 3053.07
7030.95 -2674.68 726.244
-2870.73 -2211.05 -5247.88
2251.81 7662.8 -1764.13
-4122.4 6216.4 1315.95
-1145.92 7066.83 1284.73
-4634.15 -4639.63 3526.19
5181.81 -1470.56 3388.29
-446.944 2853.58 -7349.26
3957.74 1700.5 -1862.09
-1016.07 -1617.7 5167.35
-6127.78 2086.34 3350.47
-3355.5 5797.85 3788.56
4421.86 -6224.16 230.819
6969.88 -2130.52 4230.32
2346.14 4819.75 -4381.24
5123.68 277.492 5819.26
3279.4 -1721.86 3585.75
-1432.04 -5800 5861.59
-2445.52 -2860.07 -4921.96
4789.73 -2213.94 5726.05
6674.07 -3026.17 -3816.74
579.558 1507.49 -1367.33
3262.53 3360.42 4343.66
2141.15 -4814.59 890.209
-1248.97 -6741.32 -1521.49
2291.82 512.313 -3040.16
1044.88 -7394.79 1152.99
-278.851 -3471.42 1148.93
-787.417 -98.3191 2319.27
1132.17 7152.72 4077.95
-6421.72 2997.48 1046.4
-429.289 3152.14 -4545.71
1901.55 3918.17 1588.09
947.691 3873.6 -3596.24
-3541.6 -1063.37 -5043.14
981.414 -540.503 -5565.56
1058.93 2380.9 2177.65
-2440.38 -5799.83 1026.81
2619.13 4601.72 -3555.02
-2803.01 4521.93 -4661.35
2243.24 1928.01 -1851.12
-4630.33 -64.0858 4719.5
-1579.43 -481.377 3617.13
2677.83 -3146.75 -6784.73
810.844 -5004.96 1935.01
-2969.66 2703.36 -789.6
-8136.84 371.223 800.99
-6421.57 960.051 5468.95
4857.21 4964.99 -888.279
5585.67 -3967.12 2943.15
4845.85 5146.16 2568.51
279.956 2987.35 266.916
6719.38 -4456.6 -915.756
2968.11 -2015.01 415.518
-62.9448 -1973.67 -6243.71
-2504.74 -5183.19 2001.44
5866.25 -2278.02 -1987.24
8122.54 788.293 896.3
-6902.02 -412.491 -2819.42
-1144.37 -4469.55 -4719.45
-799.697 1050.61 -1789.13
1251.78 -538.369 -639.438
848.101 -6092.38 462.299
-256.414 6240.22 1938.9
-2210.32 -7663.49 303.61
-1869.73 -307.855 4334.06
1910.82 7392.45 -3115.32
-517.753 -1009.11 1803.2
2621.92 673.519 3984.68
806.2 -479.195 3381.09
3244.08 -2336.82 1296.02
-3733.58 -2174.04 24.8433
-1373.26 2089.75 -471.759
-1386.18 4392.39 6686.93
1357.52 2065.9 -2152.16
1238.13 6832.32 4173.79
-1338.33 -4900.85 -2564.48
-2289.28 -7408.33 110.242
-3975.85 -294.516 -3997.37
-5788.91 -1221.19 3639.1
-1438.8 7648.16 -2176.75
726.393 -5493.21 6166.52
-6291.61 -5214.51 27.4955
3158.21 -6081.08 1015.22
6197.78 1080.59 4614.37
3743.55 -5184.54 -3088.48
3385.28 4587.75 3338.49
7819.14 571.503 94.7704
5485.66 2779.89 3380.26
-2986.85 -2561.9 5799.19
6528.37 -4864.11 -1620.22
2642.74 -1230.8 -2828.91
-151.227 -5987.26 486.548
950.62 5644.2 2600.84
3588.61 -3041.15 3176.77
4178.47 -2844.84 4445.12
3870.28 -974.085 -2818.7
-2197.26 5298.01 805.462
-1495.62 -3161.8 4227
-1343.59 2616.85 4369.82
-2422.02 -2294.54 -7171.33
5199.87 -4409.64 1634.47
-3407.45 2513.07 -4662.17
2610.61 6466.89 -2011
-372.188 -4230.37 -5212.98
530.094 -991.603 447.531
1858.76 -236.854 2331.46
1977.05 5404.72 5882.46
2637.44 3027.73 1146.42
-2803.07 -6641.31 -2603.99
-5148.77 -1017.66 608.826
-2369.78 -7316.32 -3165.02
-4447.96 3160.74 -6260.3
7866.78 -2426.88 477.278
-3237.21 6557.06 2769.24
-3067.19 7166.22 1221.49
-3650.98 -1001.54 5389.34
-1411.28 432.966 -5812.48
7839.72 -3116.13 -137.841
2108.96 2316.67 -1471.62
-4802.85 2943.74 739.881
-2115.33 6799.89 3753.77
5972.44 -2593.81 4629.13
-722.464 -3254.09 -6987
-2331.93 -6314.67 4679.58
-3924.07 1798.8 4177.54
6191.29 -4696.24 2976.3
-1568.83 1688.43 1276.18
-6315.06 -5071.11 -180.069
2822.13 178.859 -6027.97
4335.13 -681.447 -7173.09
-335.2 5486.63 -4987.76
-4155.62 3700.52 731.839
4726.02 3352.12 -2059
298.434 -6338.78 -4540.36
-2475.44 4983.35 4138.49
-3.41171 818.483 -5042.95
4835.73 -3672.34 4144.2
-2932.43 -3156.42 3920.65
-401.788 -6962.95 1081.47
2235.46 6263.07 -4066.41
-1676.17 -4733.11 329.688
-2580.62 -3413.03 -6868.55
-2136.95 -7077.29 -2040.88
-6492.75 -1509.72 3302.7
-1490.63 323.948 2602.82
-7840.16 306.293 -2987.89
2344.95 3170.49 -5245.56
-2308.71 -7005.67 -1478.67
7669.15 1376.03 -1128.23
6902.16 -2816.4 -2802.8
573.195 -7713.59 -1996.1
-638.93 7343.62 -1874.63
-403.125 -364.506 7161.05
-3529.88 -1962.34 -4155.35
-135.079 -384.168 -3242.38
-162.714 -952.179 6068.01
-661.311 -434.538 4881.38
-1934.01 -25.5434 2089.95
1071.69 -1388.1 7670.25
